1.290699958801269531e+01 1.104599952697753906e+01 7.839999794960021973e-01
1.329800033569335938e+01 1.171199989318847656e+01 8.080000281333923340e-01
1.321899986267089844e+01 1.197799968719482422e+01 8.119999766349792480e-01
8.128999710083007812e+00 7.587999820709228516e+00 5.849999785423278809e-01
7.942999839782714844e+00 7.626999855041503906e+00 5.809999704360961914e-01
7.651000022888183594e+00 7.557000160217285156e+00 5.730000138282775879e-01
7.576000213623046875e+00 7.697000026702880859e+00 5.740000009536743164e-01
7.736000061035156250e+00 8.112999916076660156e+00 5.879999995231628418e-01
7.293000221252441406e+00 7.866000175476074219e+00 5.720000267028808594e-01
7.250999927520751953e+00 8.046999931335449219e+00 5.749999880790710449e-01
7.113999843597412109e+00 8.147999763488769531e+00 5.749999880790710449e-01
6.906000137329101562e+00 8.138999938964843750e+00 5.699999928474426270e-01
3.100900077819824219e+01 3.775500106811523438e+01 1.860999941825866699e+00
3.018700027465820312e+01 3.795399856567382812e+01 1.848999977111816406e+00
1.553600025177001953e+01 2.022100067138671875e+01 1.070999979972839355e+00
1.831100082397460938e+01 2.471500015258789062e+01 1.248999953269958496e+00
2.959199905395507812e+01 4.117200088500976562e+01 1.924000024795532227e+00
2.535700035095214844e+01 3.634799957275390625e+01 1.707999944686889648e+00
1.180000019073486328e+01 1.758900070190429688e+01 9.250000119209289551e-01
2.824300003051757812e+01 4.348099899291992188e+01 1.962000012397766113e+00
2.783600044250488281e+01 4.421099853515625000e+01 1.975999951362609863e+00
2.508200073242187500e+01 4.125699996948242188e+01 1.842000007629394531e+00
9.319000244140625000e+00 1.591199970245361328e+01 8.330000042915344238e-01
1.660700035095214844e+01 2.933900070190429688e+01 1.348999977111816406e+00
1.473900032043457031e+01 2.691600036621093750e+01 1.246999979019165039e+00
1.328999996185302734e+01 2.529299926757812500e+01 1.174999952316284180e+00
1.248999977111816406e+01 2.470499992370605469e+01 1.144999980926513672e+00
1.281299972534179688e+01 7.880400085449218750e+01 2.908999919891357422e+00
8.454999923706054688e+00 7.814499664306640625e+01 2.867000102996826172e+00
5.021999835968017578e+00 -8.524999618530273438e+00 5.440000295639038086e-01
5.186999797821044922e+00 -8.527000427246093750e+00 5.469999909400939941e-01
5.354000091552734375e+00 -8.527000427246093750e+00 5.500000119209289551e-01
5.514999866485595703e+00 -8.512000083923339844e+00 5.519999861717224121e-01
5.598999977111816406e+00 -8.352000236511230469e+00 5.490000247955322266e-01
5.709000110626220703e+00 -8.262000083923339844e+00 5.490000247955322266e-01
5.895999908447265625e+00 -8.279999732971191406e+00 5.529999732971191406e-01
6.072999954223632812e+00 -8.250000000000000000e+00 5.559999942779541016e-01
6.250000000000000000e+00 -8.243000030517578125e+00 5.590000152587890625e-01
6.600999832153320312e+00 -8.345000267028808594e+00 5.690000057220458984e-01
6.757999897003173828e+00 -8.298999786376953125e+00 5.709999799728393555e-01
6.916999816894531250e+00 -8.253000259399414062e+00 5.730000138282775879e-01
7.077000141143798828e+00 -8.180000305175781250e+00 5.749999880790710449e-01
7.224999904632568359e+00 -8.116000175476074219e+00 5.770000219345092773e-01
7.359000205993652344e+00 -8.034999847412109375e+00 5.780000090599060059e-01
7.692999839782714844e+00 -8.137000083923339844e+00 5.879999995231628418e-01
7.861000061035156250e+00 -8.083999633789062500e+00 5.899999737739562988e-01
8.041000366210937500e+00 -8.038000106811523438e+00 5.939999818801879883e-01
8.201999664306640625e+00 -7.968999862670898438e+00 5.960000157356262207e-01
8.383000373840332031e+00 -7.893000125885009766e+00 5.979999899864196777e-01
8.585000038146972656e+00 -7.856999874114990234e+00 6.029999852180480957e-01
8.564999580383300781e+00 -7.619999885559082031e+00 5.970000028610229492e-01
8.798000335693359375e+00 -7.581999778747558594e+00 6.019999980926513672e-01
8.987999916076660156e+00 -7.526999950408935547e+00 6.060000061988830566e-01
9.175000190734863281e+00 -7.465000152587890625e+00 6.090000271797180176e-01
9.376999855041503906e+00 -7.387000083923339844e+00 6.129999756813049316e-01
9.567000389099121094e+00 -7.318999767303466797e+00 6.159999966621398926e-01
9.763999938964843750e+00 -7.254000186920166016e+00 6.200000047683715820e-01
9.973999977111816406e+00 -7.192999839782714844e+00 6.250000000000000000e-01
6.991000175476074219e+00 -4.886000156402587891e+00 4.979999959468841553e-01
6.942999839782714844e+00 -4.709000110626220703e+00 4.930000007152557373e-01
6.991000175476074219e+00 -4.598000049591064453e+00 4.920000135898590088e-01
7.052000045776367188e+00 -4.480999946594238281e+00 4.920000135898590088e-01
7.197999954223632812e+00 -4.432000160217285156e+00 4.950000047683715820e-01
1.149300003051757812e+01 -6.836999893188476562e+00 6.610000133514404297e-01
1.174100017547607422e+01 -6.761000156402587891e+00 6.669999957084655762e-01
1.173600006103515625e+01 -6.514999866485595703e+00 6.629999876022338867e-01
1.203299999237060547e+01 -6.459000110626220703e+00 6.710000038146972656e-01
1.228100013732910156e+01 -6.369999885559082031e+00 6.769999861717224121e-01
1.256900024414062500e+01 -6.269999980926513672e+00 6.840000152587890625e-01
1.261699962615966797e+01 -6.072999954223632812e+00 6.830000281333923340e-01
1.282699966430664062e+01 -5.952000141143798828e+00 6.869999766349792480e-01
1.303199958801269531e+01 -5.823999881744384766e+00 6.919999718666076660e-01
1.322299957275390625e+01 -5.662000179290771484e+00 6.959999799728393555e-01
1.757799911499023438e+01 -7.224999904632568359e+00 8.519999980926513672e-01
1.421700000762939453e+01 -5.616000175476074219e+00 7.260000109672546387e-01
1.439500045776367188e+01 -5.426000118255615234e+00 7.289999723434448242e-01
1.484799957275390625e+01 -5.357999801635742188e+00 7.429999709129333496e-01
1.462800025939941406e+01 -5.046000003814697266e+00 7.319999933242797852e-01
1.459300041198730469e+01 -4.804999828338623047e+00 7.289999723434448242e-01
1.480200004577636719e+01 -4.617000102996826172e+00 7.329999804496765137e-01
1.504599952697753906e+01 -4.460000038146972656e+00 7.400000095367431641e-01
1.651700019836425781e+01 -4.640999794006347656e+00 7.889999747276306152e-01
5.128799819946289062e+01 -1.348799991607666016e+01 2.002000093460083008e+00
5.160200119018554688e+01 -1.279300022125244141e+01 2.006999969482421875e+00
5.129299926757812500e+01 -1.194999980926513672e+01 1.990000009536743164e+00
5.128300094604492188e+01 -1.110099983215332031e+01 1.983000040054321289e+00
5.129499816894531250e+01 -1.034700012207031250e+01 1.978999972343444824e+00
1.931100082397460938e+01 -3.565999984741210938e+00 8.730000257492065430e-01
5.309799957275390625e+01 -8.470999717712402344e+00 2.026999950408935547e+00
1.279599952697753906e+01 -1.835000038146972656e+00 6.460000276565551758e-01
5.415900039672851562e+01 -6.902999877929687500e+00 2.055000066757202148e+00
5.537699890136718750e+01 -6.086999893188476562e+00 2.092999935150146484e+00
5.559299850463867188e+01 -5.229000091552734375e+00 2.096999883651733398e+00
4.139300155639648438e+01 -3.178999900817871094e+00 1.613000035285949707e+00
1.513700008392333984e+01 -8.690000176429748535e-01 7.220000028610229492e-01
1.504399967193603516e+01 -6.499999761581420898e-01 7.179999947547912598e-01
1.496500015258789062e+01 -4.350000023841857910e-01 7.149999737739562988e-01
1.486699962615966797e+01 -1.990000009536743164e-01 7.120000123977661133e-01
1.314900016784667969e+01 3.200000151991844177e-02 5.699999928474426270e-01
3.545100021362304688e+01 5.440000295639038086e-01 1.182999968528747559e+00
3.610699844360351562e+01 1.121000051498413086e+00 1.200999975204467773e+00
3.677899932861328125e+01 1.661999940872192383e+00 1.220000028610229492e+00
3.743999862670898438e+01 2.223000049591064453e+00 1.238999962806701660e+00
4.638899993896484375e+01 3.552999973297119141e+00 1.486999988555908203e+00
4.584199905395507812e+01 4.236000061035156250e+00 1.473999977111816406e+00
4.648300170898437500e+01 4.959000110626220703e+00 1.493000030517578125e+00
3.250999832153320312e+01 4.149000167846679688e+00 1.108999967575073242e+00
3.029500007629394531e+01 4.303999900817871094e+00 1.049000024795532227e+00
2.973699951171875000e+01 4.703000068664550781e+00 1.036000013351440430e+00
2.923999977111816406e+01 5.050000190734863281e+00 1.024000048637390137e+00
3.041300010681152344e+01 5.893000125885009766e+00 1.059999942779541016e+00
3.208900070190429688e+01 6.688000202178955078e+00 1.108999967575073242e+00
3.083900070190429688e+01 6.986000061035156250e+00 1.077000021934509277e+00
3.872600173950195312e+01 9.536999702453613281e+00 1.304999947547912598e+00
3.820800018310546875e+01 9.984999656677246094e+00 1.294000029563903809e+00
3.767599868774414062e+01 1.041699981689453125e+01 1.282999992370605469e+00
3.717800140380859375e+01 1.084799957275390625e+01 1.273000001907348633e+00
3.661100006103515625e+01 1.131000041961669922e+01 1.261999964714050293e+00
3.615499877929687500e+01 1.173099994659423828e+01 1.253000020980834961e+00
3.589199829101562500e+01 1.233500003814697266e+01 1.251000046730041504e+00
3.999100112915039062e+01 1.437600040435791016e+01 1.376000046730041504e+00
3.980500030517578125e+01 1.501900005340576172e+01 1.378000020980834961e+00
3.409999847412109375e+01 1.354800033569335938e+01 1.217000007629394531e+00
3.363899993896484375e+01 1.391899967193603516e+01 1.208999991416931152e+00
3.321300125122070312e+01 1.429599952697753906e+01 1.202000021934509277e+00
3.276100158691406250e+01 1.471599960327148438e+01 1.195000052452087402e+00
2.718099975585937500e+01 1.267899990081787109e+01 1.032999992370605469e+00
3.182799911499023438e+01 1.539299964904785156e+01 1.179999947547912598e+00
3.184300041198730469e+01 1.602199935913085938e+01 1.187999963760375977e+00
3.433599853515625000e+01 1.788699913024902344e+01 1.271999955177307129e+00
3.347100067138671875e+01 1.804199981689453125e+01 1.253000020980834961e+00
3.232500076293945312e+01 1.802000045776367188e+01 1.225999951362609863e+00
3.236899948120117188e+01 1.871599960327148438e+01 1.235999941825866699e+00
3.207199859619140625e+01 1.915500068664550781e+01 1.235000014305114746e+00
3.421900177001953125e+01 2.109700012207031250e+01 1.312999963760375977e+00
3.434700012207031250e+01 2.192700004577636719e+01 1.327999949455261230e+00
3.280099868774414062e+01 2.174799919128417969e+01 1.289999961853027344e+00
8.847999572753906250e+00 6.071000099182128906e+00 5.030000209808349609e-01
1.400500011444091797e+01 9.885000228881835938e+00 6.800000071525573730e-01
1.447000026702880859e+01 1.055599975585937500e+01 7.009999752044677734e-01
1.450500011444091797e+01 1.089900016784667969e+01 7.070000171661376953e-01
1.464599990844726562e+01 1.133100032806396484e+01 7.170000076293945312e-01
1.458699989318847656e+01 1.169400024414062500e+01 7.220000028610229492e-01
1.301399993896484375e+01 1.077600002288818359e+01 6.729999780654907227e-01
1.274199962615966797e+01 1.092800045013427734e+01 6.700000166893005371e-01
1.273600006103515625e+01 1.123900032043457031e+01 6.750000119209289551e-01
1.322599983215332031e+01 1.200500011444091797e+01 6.990000009536743164e-01
8.036999702453613281e+00 7.543000221252441406e+00 5.109999775886535645e-01
7.897999763488769531e+00 7.625000000000000000e+00 5.099999904632568359e-01
7.721000194549560547e+00 7.669000148773193359e+00 5.080000162124633789e-01
7.487999916076660156e+00 7.675000190734863281e+00 5.030000209808349609e-01
7.725999832153320312e+00 8.145000457763671875e+00 5.170000195503234863e-01
7.330999851226806641e+00 8.001999855041503906e+00 5.070000290870666504e-01
7.147999763488769531e+00 8.027000427246093750e+00 5.040000081062316895e-01
7.461999893188476562e+00 8.729999542236328125e+00 5.239999890327453613e-01
3.110199928283691406e+01 3.743299865722656250e+01 1.546000003814697266e+00
3.071699905395507812e+01 3.805099868774414062e+01 1.552000045776367188e+00
3.053499984741210938e+01 3.893899917602539062e+01 1.567999958992004395e+00
1.537600040435791016e+01 2.027599906921386719e+01 9.079999923706054688e-01
1.836199951171875000e+01 2.492799949645996094e+01 1.059000015258789062e+00
2.950499916076660156e+01 4.123699951171875000e+01 1.601999998092651367e+00
2.913100051879882812e+01 4.195600128173828125e+01 1.611999988555908203e+00
2.858200073242187500e+01 4.286800003051757812e+01 1.623999953269958496e+00
2.818199920654296875e+01 4.359000015258789062e+01 1.634999990463256836e+00
2.013199996948242188e+01 3.213899993896484375e+01 1.251000046730041504e+00
2.489599990844726562e+01 4.115399932861328125e+01 1.529999971389770508e+00
1.690900039672851562e+01 2.887999916076660156e+01 1.128000020980834961e+00
1.158199977874755859e+01 2.045599937438964844e+01 8.550000190734863281e-01
1.486900043487548828e+01 2.723200035095214844e+01 1.060999989509582520e+00
1.267500019073486328e+01 2.402199935913085938e+01 9.549999833106994629e-01
8.152999877929687500e+00 3.750799942016601562e+01 1.263000011444091797e+00
1.178899955749511719e+01 7.801100158691406250e+01 2.377000093460083008e+00
1.060299968719482422e+01 7.757399749755859375e+01 2.359999895095825195e+00
5.054999828338623047e+00 -8.517999649047851562e+00 4.810000061988830566e-01
5.206999778747558594e+00 -8.498000144958496094e+00 4.819999933242797852e-01
5.367000102996826172e+00 -8.487999916076660156e+00 4.850000143051147461e-01
5.546000003814697266e+00 -8.472999572753906250e+00 4.869999885559082031e-01
5.598000049591064453e+00 -8.293999671936035156e+00 4.839999973773956299e-01
5.734000205993652344e+00 -8.241999626159667969e+00 4.850000143051147461e-01
5.914999961853027344e+00 -8.251999855041503906e+00 4.880000054836273193e-01
6.097000122070312500e+00 -8.229999542236328125e+00 4.900000095367431641e-01
6.282999992370605469e+00 -8.234999656677246094e+00 4.930000007152557373e-01
6.539000034332275391e+00 -8.324999809265136719e+00 5.000000000000000000e-01
6.714000225067138672e+00 -8.277999877929687500e+00 5.009999871253967285e-01
6.868000030517578125e+00 -8.225999832153320312e+00 5.030000209808349609e-01
7.027999877929687500e+00 -8.180000305175781250e+00 5.049999952316284180e-01
7.171999931335449219e+00 -8.112999916076660156e+00 5.059999823570251465e-01
7.309999942779541016e+00 -8.012999534606933594e+00 5.070000290870666504e-01
7.685999870300292969e+00 -8.190999984741210938e+00 5.170000195503234863e-01
7.848000049591064453e+00 -8.130000114440917969e+00 5.189999938011169434e-01
8.029999732971191406e+00 -8.060999870300292969e+00 5.210000276565551758e-01
8.199000358581542969e+00 -8.001000404357910156e+00 5.230000019073486328e-01
8.380000114440917969e+00 -7.951000213623046875e+00 5.260000228881835938e-01
8.571999549865722656e+00 -7.881000041961669922e+00 5.289999842643737793e-01
8.527999877929687500e+00 -7.619999885559082031e+00 5.230000019073486328e-01
8.713999748229980469e+00 -7.567999839782714844e+00 5.260000228881835938e-01
8.920000076293945312e+00 -7.527999877929687500e+00 5.289999842643737793e-01
9.123000144958496094e+00 -7.458000183105468750e+00 5.320000052452087402e-01
9.307999610900878906e+00 -7.392000198364257812e+00 5.350000262260437012e-01
9.503999710083007812e+00 -7.331999778747558594e+00 5.379999876022338867e-01
9.701999664306640625e+00 -7.243999958038330078e+00 5.410000085830688477e-01
9.913000106811523438e+00 -7.185999870300292969e+00 5.450000166893005371e-01
6.946000099182128906e+00 -4.876999855041503906e+00 4.420000016689300537e-01
6.907000064849853516e+00 -4.704999923706054688e+00 4.379999935626983643e-01
6.961999893188476562e+00 -4.584000110626220703e+00 4.379999935626983643e-01
7.037000179290771484e+00 -4.493000030517578125e+00 4.379999935626983643e-01
7.184999942779541016e+00 -4.446000099182128906e+00 4.410000145435333252e-01
1.142399978637695312e+01 -6.840000152587890625e+00 5.749999880790710449e-01
1.165600013732910156e+01 -6.756999969482421875e+00 5.789999961853027344e-01
1.170400047302246094e+01 -6.565000057220458984e+00 5.770000219345092773e-01
1.195499992370605469e+01 -6.486000061035156250e+00 5.820000171661376953e-01
1.221800041198730469e+01 -6.382999897003173828e+00 5.870000123977661133e-01
1.248200035095214844e+01 -6.298999786376953125e+00 5.929999947547912598e-01
1.256599998474121094e+01 -6.119999885559082031e+00 5.929999947547912598e-01
1.277099990844726562e+01 -5.973000049591064453e+00 5.960000157356262207e-01
1.297099971771240234e+01 -5.844999790191650391e+00 6.000000238418579102e-01
1.317899990081787109e+01 -5.716000080108642578e+00 6.029999852180480957e-01
1.400300025939941406e+01 -5.842000007629394531e+00 6.259999871253967285e-01
1.416899967193603516e+01 -5.651000022888183594e+00 6.280000209808349609e-01
1.432600021362304688e+01 -5.480999946594238281e+00 6.299999952316284180e-01
1.461800003051757812e+01 -5.356999874114990234e+00 6.359999775886535645e-01
1.461200046539306641e+01 -5.070000171661376953e+00 6.340000033378601074e-01
1.459099960327148438e+01 -4.807000160217285156e+00 6.309999823570251465e-01
1.479100036621093750e+01 -4.643000125885009766e+00 6.349999904632568359e-01
1.502400016784667969e+01 -4.484000205993652344e+00 6.389999985694885254e-01
1.548999977111816406e+01 -4.360000133514404297e+00 6.510000228881835938e-01
5.127600097656250000e+01 -1.371500015258789062e+01 1.667000055313110352e+00
5.156700134277343750e+01 -1.301399993896484375e+01 1.669999957084655762e+00
5.157300186157226562e+01 -1.215699958801269531e+01 1.664999961853027344e+00
5.125199890136718750e+01 -1.131900024414062500e+01 1.651000022888183594e+00
5.125999832153320312e+01 -1.056299972534179688e+01 1.646999955177307129e+00
5.130599975585937500e+01 -9.819000244140625000e+00 1.644000053405761719e+00
5.281800079345703125e+01 -8.994999885559082031e+00 1.680999994277954102e+00
5.325699996948242188e+01 -8.211000442504882812e+00 1.689000010490417480e+00
5.374900054931640625e+01 -7.339000225067138672e+00 1.699000000953674316e+00
5.889400100708007812e+01 -7.197000026702880859e+00 1.838999986648559570e+00
3.829399871826171875e+01 -4.000000000000000000e+00 1.266999959945678711e+00
3.743299865722656250e+01 -3.256999969482421875e+00 1.241000056266784668e+00
1.543599987030029297e+01 -1.011000037193298340e+00 6.340000033378601074e-01
3.567499923706054688e+01 -1.807999968528747559e+00 1.190000057220458984e+00
3.499800109863281250e+01 -1.276999950408935547e+00 1.171000003814697266e+00
3.431499862670898438e+01 -7.659999728202819824e-01 1.151999950408935547e+00
3.444300079345703125e+01 -2.280000001192092896e-01 1.154999971389770508e+00
3.670600128173828125e+01 5.669999718666076660e-01 1.044000029563903809e+00
3.535499954223632812e+01 1.044999957084655762e+00 1.014000058174133301e+00
3.585599899291992188e+01 1.567999958992004395e+00 1.026000022888183594e+00
3.632799911499023438e+01 2.161000013351440430e+00 1.036999940872192383e+00
3.698600006103515625e+01 2.726000070571899414e+00 1.052999973297119141e+00
3.765299987792968750e+01 3.311000108718872070e+00 1.069000005722045898e+00
4.725299835205078125e+01 4.910999774932861328e+00 1.289999961853027344e+00
3.260800170898437500e+01 4.107999801635742188e+00 9.570000171661376953e-01
4.272100067138671875e+01 6.072999954223632812e+00 1.190999984741210938e+00
4.283499908447265625e+01 6.708000183105468750e+00 1.195999979972839355e+00
7.117600250244140625e+01 1.219799995422363281e+01 1.853000044822692871e+00
3.064800071716308594e+01 5.734000205993652344e+00 9.179999828338623047e-01
3.023699951171875000e+01 6.100999832153320312e+00 9.110000133514404297e-01
3.147800064086914062e+01 6.816999912261962891e+00 9.419999718666076660e-01
3.113400077819824219e+01 7.307000160217285156e+00 9.369999766349792480e-01
3.102099990844726562e+01 7.796999931335449219e+00 9.369999766349792480e-01
3.809299850463867188e+01 1.015499973297119141e+01 1.105999946594238281e+00
3.754999923706054688e+01 1.058100032806396484e+01 1.097000002861022949e+00
3.706299972534179688e+01 1.101099967956542969e+01 1.088999986648559570e+00
3.654800033569335938e+01 1.148600006103515625e+01 1.080999970436096191e+00
3.606299972534179688e+01 1.189599990844726562e+01 1.072999954223632812e+00
3.619699859619140625e+01 1.251099967956542969e+01 1.080999970436096191e+00
3.997900009155273438e+01 1.452799987792968750e+01 1.177000045776367188e+00
3.983300018310546875e+01 1.511600017547607422e+01 1.179000020027160645e+00
3.421599960327148438e+01 1.353699970245361328e+01 1.046000003814697266e+00
3.374000167846679688e+01 1.390299987792968750e+01 1.039000034332275391e+00
3.328799819946289062e+01 1.433199977874755859e+01 1.034000039100646973e+00
3.284899902343750000e+01 1.469699954986572266e+01 1.027999997138977051e+00
2.705800056457519531e+01 1.256299972534179688e+01 8.880000114440917969e-01
3.197100067138671875e+01 1.546500015258789062e+01 1.016999959945678711e+00
3.187400054931640625e+01 1.597799968719482422e+01 1.019999980926513672e+00
3.447499847412109375e+01 1.789800071716308594e+01 1.093000054359436035e+00
3.360499954223632812e+01 1.805400085449218750e+01 1.077000021934509277e+00
3.244800186157226562e+01 1.809399986267089844e+01 1.054000020027160645e+00
3.238499832153320312e+01 1.866399955749511719e+01 1.059999942779541016e+00
3.216299819946289062e+01 1.914599990844726562e+01 1.060999989509582520e+00
3.421099853515625000e+01 2.110300064086914062e+01 1.123999953269958496e+00
3.438100051879882812e+01 2.188500022888183594e+01 1.136999964714050293e+00
3.292699813842773438e+01 2.176700019836425781e+01 1.106999993324279785e+00
3.317599868774414062e+01 2.261300086975097656e+01 1.123000025749206543e+00
3.323500061035156250e+01 2.366099929809570312e+01 1.136999964714050293e+00
1.482100009918212891e+01 1.088899993896484375e+01 6.269999742507934570e-01
1.477099990844726562e+01 1.117700004577636719e+01 6.299999952316284180e-01
3.347999954223632812e+01 2.612899971008300781e+01 1.175999999046325684e+00
1.347399997711181641e+01 1.094600009918212891e+01 6.039999723434448242e-01
1.285200023651123047e+01 1.081299972534179688e+01 5.910000205039978027e-01
1.280500030517578125e+01 1.112300014495849609e+01 5.950000286102294922e-01
1.329199981689453125e+01 1.188099956512451172e+01 6.140000224113464355e-01
1.315499973297119141e+01 1.209700012207031250e+01 6.150000095367431641e-01
8.013999938964843750e+00 7.592000007629394531e+00 4.600000083446502686e-01
7.856999874114990234e+00 7.657000064849853516e+00 4.580000042915344238e-01
7.834000110626220703e+00 7.854000091552734375e+00 4.609999954700469971e-01
7.420000076293945312e+00 7.675000190734863281e+00 4.510000050067901611e-01
7.501999855041503906e+00 8.085000038146972656e+00 4.589999914169311523e-01
1.737700080871582031e+01 1.931800079345703125e+01 8.000000119209289551e-01
6.998000144958496094e+00 8.031999588012695312e+00 4.510000050067901611e-01
7.553999900817871094e+00 8.925000190734863281e+00 4.749999940395355225e-01
3.097999954223632812e+01 3.792399978637695312e+01 1.324000000953674316e+00
1.542500019073486328e+01 1.941600036621093750e+01 7.730000019073486328e-01
3.021699905395507812e+01 3.971699905395507812e+01 1.345000028610229492e+00
1.842399978637695312e+01 2.492300033569335938e+01 9.139999747276306152e-01
2.950300025939941406e+01 4.127899932861328125e+01 1.363999962806701660e+00
2.910199928283691406e+01 4.195999908447265625e+01 1.371000051498413086e+00
1.166199970245361328e+01 1.754199981689453125e+01 6.880000233650207520e-01
2.813299942016601562e+01 4.371400070190429688e+01 1.391999959945678711e+00
2.001499938964843750e+01 3.207600021362304688e+01 1.069000005722045898e+00
1.871500015258789062e+01 3.106699943542480469e+01 1.034000039100646973e+00
1.697299957275390625e+01 2.909399986267089844e+01 9.750000238418579102e-01
1.156099987030029297e+01 2.045999908447265625e+01 7.440000176429748535e-01
1.782099914550781250e+01 3.276100158691406250e+01 1.057999968528747559e+00
1.625600051879882812e+01 3.091300010681152344e+01 1.003999948501586914e+00
1.244499969482421875e+01 2.448800086975097656e+01 8.339999914169311523e-01
2.575499916076660156e+01 6.817600250244140625e+01 1.868000030517578125e+00
7.894000053405761719e+00 3.777399826049804688e+01 1.087000012397766113e+00
1.194699954986572266e+01 7.704699707031250000e+01 1.983999967575073242e+00
5.000999927520751953e+00 7.581099700927734375e+01 1.939000010490417480e+00
5.072999954223632812e+00 -8.588999748229980469e+00 4.350000023841857910e-01
5.232999801635742188e+00 -8.581000328063964844e+00 4.370000064373016357e-01
5.394999980926513672e+00 -8.571000099182128906e+00 4.390000104904174805e-01
5.578000068664550781e+00 -8.560000419616699219e+00 4.410000145435333252e-01
5.612999916076660156e+00 -8.354999542236328125e+00 4.379999935626983643e-01
5.745999813079833984e+00 -8.295999526977539062e+00 4.379999935626983643e-01
5.939000129699707031e+00 -8.291999816894531250e+00 4.410000145435333252e-01
6.116000175476074219e+00 -8.288999557495117188e+00 4.429999887943267822e-01
6.282999992370605469e+00 -8.269000053405761719e+00 4.449999928474426270e-01
6.592999935150146484e+00 -8.371000289916992188e+00 4.510000050067901611e-01
6.755000114440917969e+00 -8.305000305175781250e+00 4.519999921321868896e-01
6.915999889373779297e+00 -8.260000228881835938e+00 4.539999961853027344e-01
7.076000213623046875e+00 -8.213000297546386719e+00 4.550000131130218506e-01
7.222000122070312500e+00 -8.147000312805175781e+00 4.560000002384185791e-01
7.366000175476074219e+00 -8.050000190734863281e+00 4.569999873638153076e-01
7.748000144958496094e+00 -8.229999542236328125e+00 4.659999907016754150e-01
7.900000095367431641e+00 -8.156999588012695312e+00 4.670000076293945312e-01
8.095000267028808594e+00 -8.098999977111816406e+00 4.690000116825103760e-01
8.255999565124511719e+00 -8.029999732971191406e+00 4.709999859333038330e-01
8.427000045776367188e+00 -7.967000007629394531e+00 4.720000028610229492e-01
8.630999565124511719e+00 -7.907000064849853516e+00 4.749999940395355225e-01
8.576999664306640625e+00 -7.638000011444091797e+00 4.699999988079071045e-01
8.789999961853027344e+00 -7.606999874114990234e+00 4.729999899864196777e-01
8.987000465393066406e+00 -7.558000087738037109e+00 4.760000109672546387e-01
9.175000190734863281e+00 -7.472000122070312500e+00 4.779999852180480957e-01
9.376999855041503906e+00 -7.419000148773193359e+00 4.810000061988830566e-01
9.564000129699707031e+00 -7.348999977111816406e+00 4.830000102519989014e-01
9.781000137329101562e+00 -7.274000167846679688e+00 4.860000014305114746e-01
9.972999572753906250e+00 -7.199999809265136719e+00 4.880000054836273193e-01
7.006999969482421875e+00 -4.919000148773193359e+00 4.029999971389770508e-01
6.954999923706054688e+00 -4.737999916076660156e+00 4.000000059604644775e-01
7.012000083923339844e+00 -4.617000102996826172e+00 3.989999890327453613e-01
7.084000110626220703e+00 -4.521999835968017578e+00 4.000000059604644775e-01
7.227000236511230469e+00 -4.469999790191650391e+00 4.020000100135803223e-01
1.150000000000000000e+01 -6.848999977111816406e+00 5.130000114440917969e-01
1.174300003051757812e+01 -6.769999980926513672e+00 5.170000195503234863e-01
1.174100017547607422e+01 -6.550000190734863281e+00 5.139999985694885254e-01
1.203499984741210938e+01 -6.492000102996826172e+00 5.199999809265136719e-01
1.231700038909912109e+01 -6.395999908447265625e+00 5.239999890327453613e-01
1.256900024414062500e+01 -6.302000045776367188e+00 5.289999842643737793e-01
1.262399959564208984e+01 -6.107999801635742188e+00 5.279999971389770508e-01
1.284399986267089844e+01 -5.967000007629394531e+00 5.310000181198120117e-01
1.304899978637695312e+01 -5.840000152587890625e+00 5.339999794960021973e-01
1.324600028991699219e+01 -5.703999996185302734e+00 5.370000004768371582e-01
1.408899974822998047e+01 -5.830999851226806641e+00 5.559999942779541016e-01
1.423499965667724609e+01 -5.631000041961669922e+00 5.569999814033508301e-01
1.429399967193603516e+01 -5.421999931335449219e+00 5.559999942779541016e-01
1.491499996185302734e+01 -5.415999889373779297e+00 5.699999928474426270e-01
1.471300029754638672e+01 -5.032000064849853516e+00 5.619999766349792480e-01
1.463799953460693359e+01 -4.776000022888183594e+00 5.590000152587890625e-01
1.487300014495849609e+01 -4.620999813079833984e+00 5.630000233650207520e-01
1.510299968719482422e+01 -4.459000110626220703e+00 5.669999718666076660e-01
1.681900024414062500e+01 -4.677000045776367188e+00 6.060000061988830566e-01
5.153300094604492188e+01 -1.349300003051757812e+01 1.422000050544738770e+00
5.160200119018554688e+01 -1.273499965667724609e+01 1.419000029563903809e+00
5.160900115966796875e+01 -1.188000011444091797e+01 1.414000034332275391e+00
5.130599975585937500e+01 -1.104899978637695312e+01 1.404000043869018555e+00
5.137500000000000000e+01 -1.030599975585937500e+01 1.401999950408935547e+00
1.946599960327148438e+01 -3.572999954223632812e+00 6.589999794960021973e-01
5.292699813842773438e+01 -8.812000274658203125e+00 1.429999947547912598e+00
1.283800029754638672e+01 -1.889000058174133301e+00 5.040000081062316895e-01
5.400699996948242188e+01 -7.083000183105468750e+00 1.449000000953674316e+00
5.571599960327148438e+01 -5.710000038146972656e+00 1.483999967575073242e+00
3.823600006103515625e+01 -3.200000047683715820e+00 1.082000017166137695e+00
1.526099967956542969e+01 -9.789999723434448242e-01 5.569999814033508301e-01
3.580199813842773438e+01 -1.754999995231628418e+00 1.024999976158142090e+00
3.495600128173828125e+01 -1.218999981880187988e+00 1.004999995231628418e+00
3.571900177001953125e+01 -7.400000095367431641e-01 1.021999955177307129e+00
3.604600143432617188e+01 -1.800000071525573730e-01 1.029000043869018555e+00
3.405799865722656250e+01 3.190000057220458984e-01 7.260000109672546387e-01
3.397200012207031250e+01 7.990000247955322266e-01 7.250000238418579102e-01
3.440100097656250000e+01 1.348999977111816406e+00 7.310000061988830566e-01
3.799700164794921875e+01 2.026000022888183594e+00 7.870000004768371582e-01
3.769800186157226562e+01 2.545000076293945312e+00 7.820000052452087402e-01
4.698600006103515625e+01 3.907999992370605469e+00 9.250000119209289551e-01
3.159199905395507812e+01 3.286999940872192383e+00 6.909999847412109375e-01
3.261000061035156250e+01 3.963000059127807617e+00 7.070000171661376953e-01
3.268600082397460938e+01 4.440999984741210938e+00 7.099999785423278809e-01
4.270800018310546875e+01 6.410999774932861328e+00 8.650000095367431641e-01
7.076100158691406250e+01 1.174499988555908203e+01 1.299000024795532227e+00
7.189299774169921875e+01 1.297900009155273438e+01 1.319000005722045898e+00
3.028800010681152344e+01 5.926000118255615234e+00 6.769999861717224121e-01
3.235300064086914062e+01 6.857999801635742188e+00 7.110000252723693848e-01
3.217300033569335938e+01 7.402999877929687500e+00 7.099999785423278809e-01
3.210200119018554688e+01 7.866000175476074219e+00 7.110000252723693848e-01
3.826200103759765625e+01 9.946000099182128906e+00 8.090000152587890625e-01
3.769400024414062500e+01 1.043299961090087891e+01 8.029999732971191406e-01
4.062599945068359375e+01 1.186299991607666016e+01 8.519999980926513672e-01
3.668600082397460938e+01 1.127999973297119141e+01 7.919999957084655762e-01
3.620299911499023438e+01 1.169499969482421875e+01 7.860000133514404297e-01
3.606600189208984375e+01 1.227900028228759766e+01 7.870000004768371582e-01
4.001399993896484375e+01 1.425500011444091797e+01 8.539999723434448242e-01
3.986199951171875000e+01 1.483899974822998047e+01 8.550000190734863281e-01
3.428099822998046875e+01 1.350599956512451172e+01 7.680000066757202148e-01
3.374399948120117188e+01 1.384899997711181641e+01 7.630000114440917969e-01
3.331499862670898438e+01 1.422700023651123047e+01 7.590000033378601074e-01
3.804199981689453125e+01 1.688100051879882812e+01 8.410000205039978027e-01
2.714399909973144531e+01 1.256700038909912109e+01 6.629999876022338867e-01
3.200999832153320312e+01 1.536699962615966797e+01 7.480000257492065430e-01
3.185000038146972656e+01 1.584899997711181641e+01 7.490000128746032715e-01
3.200799942016601562e+01 1.655900001525878906e+01 7.559999823570251465e-01
3.216899871826171875e+01 1.722299957275390625e+01 7.630000114440917969e-01
3.229700088500976562e+01 1.788299942016601562e+01 7.689999938011169434e-01
3.239599990844726562e+01 1.867600059509277344e+01 7.770000100135803223e-01
3.251100158691406250e+01 1.942799949645996094e+01 7.839999794960021973e-01
3.296500015258789062e+01 2.033699989318847656e+01 7.969999909400939941e-01
3.310400009155273438e+01 2.107399940490722656e+01 8.050000071525573730e-01
3.297000122070312500e+01 2.164999961853027344e+01 8.080000281333923340e-01
3.311399841308593750e+01 2.249600028991699219e+01 8.169999718666076660e-01
1.406099987030029297e+01 9.864000320434570312e+00 4.690000116825103760e-01
2.978499984741210938e+01 2.149200057983398438e+01 7.659999728202819824e-01
1.450300025939941406e+01 1.083199977874755859e+01 4.830000102519989014e-01
3.345000076293945312e+01 2.568400001525878906e+01 8.489999771118164062e-01
1.424400043487548828e+01 1.127999973297119141e+01 4.839999973773956299e-01
1.417300033569335938e+01 1.155300045013427734e+01 4.860000014305114746e-01
1.349899959564208984e+01 1.136200046539306641e+01 4.760000109672546387e-01
1.380000019073486328e+01 1.195100021362304688e+01 4.850000143051147461e-01
1.329300022125244141e+01 1.184599971771240234e+01 4.790000021457672119e-01
8.404000282287597656e+00 7.742000102996826172e+00 3.819999992847442627e-01
7.968999862670898438e+00 7.553999900817871094e+00 3.750000000000000000e-01
7.701000213623046875e+00 7.510000228881835938e+00 3.709999918937683105e-01
7.426000118255615234e+00 7.473999977111816406e+00 3.680000007152557373e-01
7.366000175476074219e+00 7.625999927520751953e+00 3.689999878406524658e-01
3.210200119018554688e+01 3.406000137329101562e+01 9.200000166893005371e-01
1.782900047302246094e+01 1.947699928283691406e+01 6.090000271797180176e-01
7.109000205993652344e+00 8.038000106811523438e+00 3.709999918937683105e-01
7.201000213623046875e+00 8.376999855041503906e+00 3.759999871253967285e-01
3.124099922180175781e+01 3.726300048828125000e+01 9.470000267028808594e-01
3.088100051879882812e+01 3.803099822998046875e+01 9.530000090599060059e-01
3.010300064086914062e+01 4.006800079345703125e+01 9.700000286102294922e-01
1.847100067138671875e+01 2.534000015258789062e+01 6.850000023841857910e-01
2.951899909973144531e+01 4.169400024414062500e+01 9.850000143051147461e-01
2.905599975585937500e+01 4.243799972534179688e+01 9.900000095367431641e-01
2.857600021362304688e+01 4.332400131225585938e+01 9.969999790191650391e-01
2.794799995422363281e+01 4.400699996948242188e+01 1.001000046730041504e+00
2.752499961853027344e+01 4.472700119018554688e+01 1.006999969482421875e+00
1.920299911499023438e+01 3.234500122070312500e+01 7.799999713897705078e-01
1.803899955749511719e+01 3.138899993896484375e+01 7.580000162124633789e-01
1.134099960327148438e+01 2.041500091552734375e+01 5.630000233650207520e-01
1.457900047302246094e+01 2.722500038146972656e+01 6.769999861717224121e-01
1.403199958801269531e+01 2.711899948120117188e+01 6.719999909400939941e-01
1.666399955749511719e+01 3.333900070190429688e+01 7.749999761581420898e-01
2.378800010681152344e+01 4.949399948120117188e+01 1.042999982833862305e+00
2.815200042724609375e+01 6.525599670410156250e+01 1.289000034332275391e+00
1.891099929809570312e+01 4.883599853515625000e+01 1.003999948501586914e+00
8.397000312805175781e+00 3.754000091552734375e+01 7.929999828338623047e-01
7.885000228881835938e+00 3.774700164794921875e+01 7.940000295639038086e-01
5.039999961853027344e+00 7.574099731445312500e+01 1.361999988555908203e+00
5.140999794006347656e+00 -8.296999931335449219e+00 3.560000061988830566e-01
5.291999816894531250e+00 -8.277000427246093750e+00 3.569999933242797852e-01
5.460000038146972656e+00 -8.251999855041503906e+00 3.580000102519989014e-01
5.635000228881835938e+00 -8.260000228881835938e+00 3.600000143051147461e-01
5.798999786376953125e+00 -8.248000144958496094e+00 3.610000014305114746e-01
5.980999946594238281e+00 -8.229000091552734375e+00 3.619999885559082031e-01
6.160999774932861328e+00 -8.229999542236328125e+00 3.639999926090240479e-01
6.328999996185302734e+00 -8.210000038146972656e+00 3.650000095367431641e-01
6.614999771118164062e+00 -8.282999992370605469e+00 3.689999878406524658e-01
6.781000137329101562e+00 -8.222999572753906250e+00 3.700000047683715820e-01
6.932000160217285156e+00 -8.166999816894531250e+00 3.709999918937683105e-01
7.068999767303466797e+00 -8.093999862670898438e+00 3.709999918937683105e-01
7.195000171661376953e+00 -7.981999874114990234e+00 3.709999918937683105e-01
7.366000175476074219e+00 -7.942999839782714844e+00 3.720000088214874268e-01
7.524000167846679688e+00 -7.887000083923339844e+00 3.740000128746032715e-01
7.697999954223632812e+00 -7.844999790191650391e+00 3.750000000000000000e-01
7.870999813079833984e+00 -7.772999763488769531e+00 3.759999871253967285e-01
8.050999641418457031e+00 -7.729000091552734375e+00 3.770000040531158447e-01
8.199999809265136719e+00 -7.652999877929687500e+00 3.779999911785125732e-01
8.401000022888183594e+00 -7.597000122070312500e+00 3.799999952316284180e-01
8.590000152587890625e+00 -7.551000118255615234e+00 3.819999992847442627e-01
8.802000045776367188e+00 -7.519999980926513672e+00 3.840000033378601074e-01
8.994999885559082031e+00 -7.467000007629394531e+00 3.860000073909759521e-01
9.203000068664550781e+00 -7.399000167846679688e+00 3.869999945163726807e-01
9.399000167846679688e+00 -7.341000080108642578e+00 3.889999985694885254e-01
9.579999923706054688e+00 -7.267000198364257812e+00 3.910000026226043701e-01
9.793000221252441406e+00 -7.189000129699707031e+00 3.930000066757202148e-01
9.975999832153320312e+00 -7.110000133514404297e+00 3.939999938011169434e-01
6.894000053405761719e+00 -4.757999897003173828e+00 3.350000083446502686e-01
6.925000190734863281e+00 -4.635000228881835938e+00 3.339999914169311523e-01
6.987999916076660156e+00 -4.519999980926513672e+00 3.339999914169311523e-01
7.120999813079833984e+00 -4.465000152587890625e+00 3.359999954700469971e-01
1.130799961090087891e+01 -6.887000083923339844e+00 4.090000092983245850e-01
1.154899978637695312e+01 -6.788000106811523438e+00 4.110000133514404297e-01
1.174499988555908203e+01 -6.682000160217285156e+00 4.129999876022338867e-01
1.179599952697753906e+01 -6.492000102996826172e+00 4.129999876022338867e-01
1.209300041198730469e+01 -6.434999942779541016e+00 4.160000085830688477e-01
1.236800003051757812e+01 -6.335000038146972656e+00 4.189999997615814209e-01
1.263000011444091797e+01 -6.244999885559082031e+00 4.219999909400939941e-01
1.269900035858154297e+01 -6.058000087738037109e+00 4.219999909400939941e-01
1.290400028228759766e+01 -5.907999992370605469e+00 4.239999949932098389e-01
1.309599971771240234e+01 -5.774000167846679688e+00 4.250000119209289551e-01
1.328800010681152344e+01 -5.636000156402587891e+00 4.269999861717224121e-01
1.978199958801269531e+01 -8.039999961853027344e+00 5.329999923706054688e-01
1.426099967956542969e+01 -5.553999900817871094e+00 4.410000145435333252e-01
1.446500015258789062e+01 -5.400000095367431641e+00 4.429999887943267822e-01
1.496300029754638672e+01 -5.347000122070312500e+00 4.490000009536743164e-01
1.467099952697753906e+01 -4.932000160217285156e+00 4.429999887943267822e-01
1.466300010681152344e+01 -4.698999881744384766e+00 4.420000016689300537e-01
1.491899967193603516e+01 -4.550000190734863281e+00 4.449999928474426270e-01
1.515699958801269531e+01 -4.389999866485595703e+00 4.480000138282775879e-01
1.700399971008300781e+01 -4.639999866485595703e+00 4.760000109672546387e-01
5.196400070190429688e+01 -1.344799995422363281e+01 1.024000048637390137e+00
5.173899841308593750e+01 -1.243999958038330078e+01 1.016999959945678711e+00
5.128200149536132812e+01 -1.156499958038330078e+01 1.006999969482421875e+00
5.129499816894531250e+01 -1.072399997711181641e+01 1.004999995231628418e+00
5.146500015258789062e+01 -1.000199985504150391e+01 1.004999995231628418e+00
6.280599975585937500e+01 -1.088599967956542969e+01 1.177000045776367188e+00
5.344699859619140625e+01 -8.312000274658203125e+00 1.031000018119812012e+00
5.370899963378906250e+01 -7.405000209808349609e+00 1.031999945640563965e+00
5.823899841308593750e+01 -7.007999897003173828e+00 1.100000023841857910e+00
5.551800155639648438e+01 -5.532000064849853516e+00 1.055999994277954102e+00
3.819599914550781250e+01 -3.072000026702880859e+00 7.910000085830688477e-01
1.522099971771240234e+01 -9.440000057220458984e-01 4.399999976158142090e-01
3.718899917602539062e+01 -1.700000047683715820e+00 7.739999890327453613e-01
3.616400146484375000e+01 -1.139999985694885254e+00 7.580000162124633789e-01
3.583000183105468750e+01 -6.230000257492065430e-01 7.530000209808349609e-01
3.468600082397460938e+01 -5.700000002980232239e-02 7.350000143051147461e-01
3.378499984741210938e+01 4.589999914169311523e-01 5.490000247955322266e-01
3.382799911499023438e+01 9.909999966621398926e-01 5.490000247955322266e-01
3.429399871826171875e+01 1.490000009536743164e+00 5.540000200271606445e-01
3.799900054931640625e+01 2.193000078201293945e+00 5.920000076293945312e-01
4.735200119018554688e+01 3.561000108718872070e+00 6.869999766349792480e-01
6.615699768066406250e+01 6.346000194549560547e+00 8.790000081062316895e-01
6.698500061035156250e+01 7.488999843597412109e+00 8.880000114440917969e-01
3.245999908447265625e+01 4.289000034332275391e+00 5.379999876022338867e-01
4.267499923706054688e+01 6.261000156402587891e+00 6.430000066757202148e-01
7.057499694824218750e+01 1.139400005340576172e+01 9.300000071525573730e-01
7.167700195312500000e+01 1.272999954223632812e+01 9.430000185966491699e-01
3.039699935913085938e+01 5.828000068664550781e+00 5.199999809265136719e-01
3.243600082397460938e+01 6.697999954223632812e+00 5.419999957084655762e-01
7.560299682617187500e+01 1.701399993896484375e+01 9.900000095367431641e-01
4.515000152587890625e+01 1.112300014495849609e+01 6.769999861717224121e-01
3.806100082397460938e+01 1.013700008392333984e+01 6.050000190734863281e-01
3.758900070190429688e+01 1.058199977874755859e+01 6.019999980926513672e-01
3.771300125122070312e+01 1.119499969482421875e+01 6.050000190734863281e-01
3.650699996948242188e+01 1.140100002288818359e+01 5.939999818801879883e-01
3.601200103759765625e+01 1.186999988555908203e+01 5.899999737739562988e-01
3.576699829101562500e+01 1.235200023651123047e+01 5.899999737739562988e-01
3.524900054931640625e+01 1.273299980163574219e+01 5.860000252723693848e-01
3.475299835205078125e+01 1.317500019073486328e+01 5.830000042915344238e-01
3.418899917602539062e+01 1.351700019836425781e+01 5.789999961853027344e-01
3.367900085449218750e+01 1.386800003051757812e+01 5.749999880790710449e-01
3.341500091552734375e+01 1.431499958038330078e+01 5.749999880790710449e-01
3.340100097656250000e+01 1.493500041961669922e+01 5.770000219345092773e-01
2.716500091552734375e+01 1.260499954223632812e+01 5.099999904632568359e-01
3.195700073242187500e+01 1.538599967956542969e+01 5.659999847412109375e-01
3.184900093078613281e+01 1.595600032806396484e+01 5.669999718666076660e-01
3.206900024414062500e+01 1.663800048828125000e+01 5.720000267028808594e-01
3.223600006103515625e+01 1.730699920654296875e+01 5.770000219345092773e-01
3.237300109863281250e+01 1.797500038146972656e+01 5.809999704360961914e-01
3.240499877929687500e+01 1.866500091552734375e+01 5.849999785423278809e-01
3.252399826049804688e+01 1.935199928283691406e+01 5.899999737739562988e-01
3.298899841308593750e+01 2.040900039672851562e+01 5.989999771118164062e-01
3.500899887084960938e+01 2.242900085449218750e+01 6.269999742507934570e-01
3.300099945068359375e+01 2.180500030517578125e+01 6.069999933242797852e-01
3.318700027465820312e+01 2.260799980163574219e+01 6.129999756813049316e-01
1.401599979400634766e+01 9.888999938964843750e+00 3.810000121593475342e-01
1.462800025939941406e+01 1.070600032806396484e+01 3.899999856948852539e-01
1.458199977874755859e+01 1.102900028228759766e+01 3.919999897480010986e-01
1.414000034332275391e+01 1.108199977874755859e+01 3.889999985694885254e-01
1.342300033569335938e+01 1.096899986267089844e+01 3.819999992847442627e-01
1.468700027465820312e+01 1.235599994659423828e+01 4.009999930858612061e-01
1.373099994659423828e+01 1.188599967956542969e+01 3.910000026226043701e-01
1.325500011444091797e+01 1.184300041198730469e+01 3.869999945163726807e-01
1.319999980926513672e+01 1.213300037384033203e+01 3.880000114440917969e-01
8.015000343322753906e+00 7.565000057220458984e+00 3.190000057220458984e-01
7.885000228881835938e+00 7.679999828338623047e+00 3.190000057220458984e-01
7.524000167846679688e+00 7.537000179290771484e+00 3.149999976158142090e-01
7.586999893188476562e+00 7.919000148773193359e+00 3.179999887943267822e-01
7.275000095367431641e+00 7.859000205993652344e+00 3.160000145435333252e-01
7.293000221252441406e+00 8.159000396728515625e+00 3.179999887943267822e-01
7.239999771118164062e+00 8.333999633789062500e+00 3.190000057220458984e-01
3.120899963378906250e+01 3.722100067138671875e+01 6.980000138282775879e-01
6.949999809265136719e+00 8.498999595642089844e+00 3.179999887943267822e-01
3.438700103759765625e+01 4.345500183105468750e+01 7.670000195503234863e-01
3.391699981689453125e+01 4.427299880981445312e+01 7.710000276565551758e-01
1.856599998474121094e+01 2.510300064086914062e+01 5.230000019073486328e-01
2.955900001525878906e+01 4.120000076293945312e+01 7.200000286102294922e-01
2.929599952697753906e+01 4.207699966430664062e+01 7.250000238418579102e-01
2.869199943542480469e+01 4.262200164794921875e+01 7.260000109672546387e-01
2.837700080871582031e+01 4.376900100708007812e+01 7.340000271797180176e-01
2.781200027465820312e+01 4.425600051879882812e+01 7.350000143051147461e-01
2.737800025939941406e+01 4.496400070190429688e+01 7.390000224113464355e-01
1.894199943542480469e+01 3.222299957275390625e+01 5.849999785423278809e-01
1.162899971008300781e+01 2.042000007629394531e+01 4.449999928474426270e-01
1.142099952697753906e+01 2.073100090026855469e+01 4.460000097751617432e-01
1.613999938964843750e+01 3.044199943542480469e+01 5.550000071525573730e-01
1.374199962615966797e+01 2.682099914550781250e+01 5.120000243186950684e-01
2.423299980163574219e+01 4.904100036621093750e+01 7.599999904632568359e-01
2.368700027465820312e+01 4.989599990844726562e+01 7.649999856948852539e-01
8.352999687194824219e+00 3.756299972534179688e+01 5.960000157356262207e-01
5.073999881744384766e+00 -8.324999809265136719e+00 3.059999942779541016e-01
5.237999916076660156e+00 -8.326999664306640625e+00 3.070000112056732178e-01
5.388999938964843750e+00 -8.303999900817871094e+00 3.070000112056732178e-01
5.572000026702880859e+00 -8.298000335693359375e+00 3.079999983310699463e-01
5.736000061035156250e+00 -8.286000251770019531e+00 3.089999854564666748e-01
5.905000209808349609e+00 -8.277000427246093750e+00 3.100000023841857910e-01
6.091000080108642578e+00 -8.260000228881835938e+00 3.109999895095825195e-01
6.267000198364257812e+00 -8.251000404357910156e+00 3.120000064373016357e-01
6.564000129699707031e+00 -8.338000297546386719e+00 3.149999976158142090e-01
6.708000183105468750e+00 -8.277000427246093750e+00 3.149999976158142090e-01
6.868000030517578125e+00 -8.206999778747558594e+00 3.149999976158142090e-01
7.026000022888183594e+00 -8.159000396728515625e+00 3.160000145435333252e-01
7.113999843597412109e+00 -8.029000282287597656e+00 3.160000145435333252e-01
7.265999794006347656e+00 -7.969999790191650391e+00 3.160000145435333252e-01
7.440999984741210938e+00 -7.908999919891357422e+00 3.170000016689300537e-01
7.598000049591064453e+00 -7.849999904632568359e+00 3.179999887943267822e-01
7.763999938964843750e+00 -7.796999931335449219e+00 3.179999887943267822e-01
7.936999797821044922e+00 -7.724999904632568359e+00 3.190000057220458984e-01
8.114000320434570312e+00 -7.676000118255615234e+00 3.199999928474426270e-01
8.288000106811523438e+00 -7.620999813079833984e+00 3.210000097751617432e-01
8.463999748229980469e+00 -7.565000057220458984e+00 3.219999969005584717e-01
8.654000282287597656e+00 -7.493000030517578125e+00 3.230000138282775879e-01
8.928000450134277344e+00 -7.512000083923339844e+00 3.249999880790710449e-01
9.118000030517578125e+00 -7.453999996185302734e+00 3.260000050067901611e-01
9.307000160217285156e+00 -7.367000102996826172e+00 3.269999921321868896e-01
9.503999710083007812e+00 -7.306000232696533203e+00 3.280000090599060059e-01
